798.024751 -2712.773172 315.508349
796.062605 -2712.910740 315.870368
794.100459 -2713.048307 316.232388
792.138313 -2713.185875 316.594407
790.176167 -2713.323442 316.956427
788.214021 -2713.461010 317.318446
786.251875 -2713.598577 317.680466
784.289729 -2713.736144 318.042485
782.327583 -2713.873712 318.404505
780.365437 -2714.011279 318.766525
778.403291 -2714.148847 319.128544
776.441145 -2714.286414 319.490564
774.478999 -2714.423982 319.852583
772.516852 -2714.561549 320.214603
770.554706 -2714.699117 320.576622
768.592560 -2714.836684 320.938642
766.630414 -2714.974251 321.300662
764.668268 -2715.111819 321.662681
762.706122 -2715.249386 322.024701
760.743976 -2715.386954 322.386720
758.781830 -2715.524521 322.748740
756.819684 -2715.662089 323.110759
754.857538 -2715.799656 323.472779
752.000000 -2716.000000 324.000000
750.000000 -2716.000000 324.000000
748.000000 -2716.000000 324.000000
746.000000 -2716.000000 324.000000
744.000000 -2716.000000 324.000000
742.000000 -2716.000000 324.000000
740.000000 -2716.000000 324.000000
738.000000 -2716.000000 324.000000
736.000000 -2716.000000 324.000000
734.000000 -2716.000000 324.000000
732.000000 -2716.000000 324.000000
730.000000 -2716.000000 324.000000
728.000000 -2716.000000 324.000000
726.000000 -2716.000000 324.000000
724.000000 -2716.000000 324.000000
722.000000 -2716.000000 324.000000
720.000000 -2716.000000 324.000000
718.000000 -2716.000000 324.000000
716.000000 -2716.000000 324.000000
714.000000 -2716.000000 324.000000
712.000000 -2716.000000 324.000000
710.000000 -2716.000000 324.000000
708.000000 -2716.000000 324.000000
706.000000 -2716.000000 324.000000
704.000000 -2716.000000 324.000000
702.000000 -2716.000000 324.000000
700.000000 -2716.000000 324.000000
698.000000 -2716.000000 324.000000
696.000000 -2716.000000 324.000000
694.000000 -2716.000000 324.000000
692.000000 -2716.000000 324.000000
690.000000 -2716.000000 324.000000
688.000000 -2716.000000 324.000000
686.000000 -2716.000000 324.000000
684.000000 -2716.000000 324.000000
682.000000 -2716.000000 324.000000
680.000000 -2716.000000 324.000000
678.000000 -2716.000000 324.000000
676.000000 -2716.000000 324.000000
674.000000 -2716.000000 324.000000
672.000000 -2716.000000 324.000000
670.000000 -2716.000000 324.000000
668.000000 -2716.000000 324.000000
666.000000 -2716.000000 324.000000
664.000000 -2716.000000 324.000000
662.000000 -2716.000000 324.000000
660.000000 -2716.000000 324.000000
658.000000 -2716.000000 324.000000
656.000000 -2716.000000 324.000000
654.000000 -2716.000000 324.000000
652.000000 -2716.000000 324.000000
650.000000 -2716.000000 324.000000
648.000000 -2716.000000 324.000000
646.000000 -2716.000000 324.000000
644.000000 -2716.000000 324.000000
642.000000 -2716.000000 324.000000
640.000000 -2716.000000 324.000000
638.000000 -2716.000000 324.000000
636.000000 -2716.000000 324.000000
634.000000 -2716.000000 324.000000
632.000000 -2716.000000 324.000000
630.000000 -2716.000000 324.000000
628.000000 -2716.000000 324.000000
626.000000 -2716.000000 324.000000
624.000000 -2716.000000 324.000000
622.000000 -2716.000000 324.000000
620.000000 -2716.000000 324.000000
618.000000 -2716.000000 324.000000
616.000000 -2716.000000 324.000000
614.000000 -2716.000000 324.000000
612.000000 -2716.000000 324.000000
610.000000 -2716.000000 324.000000
608.000000 -2716.000000 324.000000
606.000000 -2716.000000 324.000000
604.000000 -2716.000000 324.000000
602.000000 -2716.000000 324.000000
600.000000 -2716.000000 324.000000
598.000000 -2716.000000 324.000000
596.000000 -2716.000000 324.000000
594.000000 -2716.000000 324.000000
592.000000 -2716.000000 324.000000
590.000000 -2716.000000 324.000000
588.000000 -2716.000000 324.000000
586.000000 -2716.000000 324.000000
584.000000 -2716.000000 324.000000
582.000000 -2716.000000 324.000000
580.000000 -2716.000000 324.000000
578.000000 -2716.000000 324.000000
576.000000 -2716.000000 324.000000
574.000000 -2716.000000 324.000000
572.000000 -2716.000000 324.000000
570.000000 -2716.000000 324.000000
568.000000 -2716.000000 324.000000
566.000000 -2716.000000 324.000000
564.000000 -2716.000000 324.000000
562.000000 -2716.000000 324.000000
560.000000 -2716.000000 324.000000
558.000000 -2716.000000 324.000000
556.000000 -2716.000000 324.000000
554.000000 -2716.000000 324.000000
552.000000 -2716.000000 324.000000
550.000000 -2716.000000 324.000000
548.000000 -2716.000000 324.000000
546.000000 -2716.000000 324.000000
544.000000 -2716.000000 324.000000
542.000000 -2716.000000 324.000000
540.000000 -2716.000000 324.000000
538.000000 -2716.000000 324.000000
536.000000 -2716.000000 324.000000
534.000000 -2716.000000 324.000000
532.000000 -2716.000000 324.000000
530.000000 -2716.000000 324.000000
528.000000 -2716.000000 324.000000
526.000000 -2716.000000 324.000000
524.000000 -2716.000000 324.000000
522.000000 -2716.000000 324.000000
520.000000 -2716.000000 324.000000
518.000000 -2716.000000 324.000000
516.000000 -2716.000000 324.000000
514.000000 -2716.000000 324.000000
512.000000 -2716.000000 324.000000
510.000000 -2716.000000 324.000000
508.000000 -2716.000000 324.000000
506.000000 -2716.000000 324.000000
504.000000 -2716.000000 324.000000
502.000000 -2716.000000 324.000000
500.000000 -2716.000000 324.000000
498.000000 -2716.000000 324.000000
496.000000 -2716.000000 324.000000
494.000000 -2716.000000 324.000000
492.000000 -2716.000000 324.000000
490.000000 -2716.000000 324.000000
488.000000 -2716.000000 324.000000
486.000000 -2716.000000 324.000000
484.000000 -2716.000000 324.000000
482.000000 -2716.000000 324.000000
480.000000 -2716.000000 324.000000
478.000000 -2716.000000 324.000000
476.000000 -2716.000000 324.000000
474.000000 -2716.000000 324.000000
472.000000 -2716.000000 324.000000
470.000000 -2716.000000 324.000000
468.000000 -2716.000000 324.000000
466.000000 -2716.000000 324.000000
464.000000 -2716.000000 324.000000
462.000000 -2716.000000 324.000000
460.000000 -2716.000000 324.000000
458.000000 -2716.000000 324.000000
456.000000 -2716.000000 324.000000
454.000000 -2716.000000 324.000000
452.000000 -2716.000000 324.000000
450.000000 -2716.000000 324.000000
448.000000 -2716.000000 324.000000
446.000000 -2716.000000 324.000000
444.000000 -2716.000000 324.000000
442.000000 -2716.000000 324.000000
440.000000 -2716.000000 324.000000
438.000000 -2716.000000 324.000000
436.000000 -2716.000000 324.000000
434.000000 -2716.000000 324.000000
432.000000 -2716.000000 324.000000
430.000000 -2716.000000 324.000000
428.000000 -2716.000000 324.000000
426.000000 -2716.000000 324.000000
424.000000 -2716.000000 324.000000
422.000000 -2716.000000 324.000000
420.000000 -2716.000000 324.000000
416.000000 -2716.000000 324.000000
414.003221 -2716.000000 323.886547
412.006441 -2716.000000 323.773093
410.009662 -2716.000000 323.659640
408.012882 -2716.000000 323.546186
406.016103 -2716.000000 323.432733
404.019323 -2716.000000 323.319280
402.022544 -2716.000000 323.205826
400.025764 -2716.000000 323.092373
398.028985 -2716.000000 322.978920
396.032205 -2716.000000 322.865466
394.035426 -2716.000000 322.752013
392.038646 -2716.000000 322.638559
390.041867 -2716.000000 322.525106
388.045087 -2716.000000 322.411653
386.048308 -2716.000000 322.298199
384.051528 -2716.000000 322.184746
382.054749 -2716.000000 322.071293
380.057969 -2716.000000 321.957839
378.061190 -2716.000000 321.844386
376.064410 -2716.000000 321.730932
374.067631 -2716.000000 321.617479
372.070851 -2716.000000 321.504026
370.074072 -2716.000000 321.390572
368.077292 -2716.000000 321.277119
366.080513 -2716.000000 321.163665
364.083733 -2716.000000 321.050212
362.086954 -2716.000000 320.936759
360.090174 -2716.000000 320.823305
358.093395 -2716.000000 320.709852
356.096615 -2716.000000 320.596399
354.099836 -2716.000000 320.482945
352.103056 -2716.000000 320.369492
350.106277 -2716.000000 320.256038
348.109497 -2716.000000 320.142585
346.112718 -2716.000000 320.029132
344.115938 -2716.000000 319.915678
342.119159 -2716.000000 319.802225
340.122379 -2716.000000 319.688772
338.125600 -2716.000000 319.575318
336.128820 -2716.000000 319.461865
334.132041 -2716.000000 319.348411
332.135261 -2716.000000 319.234958
330.138482 -2716.000000 319.121505
328.141702 -2716.000000 319.008051
326.144923 -2716.000000 318.894598
324.148143 -2716.000000 318.781145
322.151364 -2716.000000 318.667691
320.154584 -2716.000000 318.554238
318.157805 -2716.000000 318.440784
316.161026 -2716.000000 318.327331
314.164246 -2716.000000 318.213878
312.167467 -2716.000000 318.100424
310.170687 -2716.000000 317.986971
308.173908 -2716.000000 317.873517
306.177128 -2716.000000 317.760064
304.180349 -2716.000000 317.646611
302.183569 -2716.000000 317.533157
300.186790 -2716.000000 317.419704
298.190010 -2716.000000 317.306251
296.193231 -2716.000000 317.192797
294.196451 -2716.000000 317.079344
292.199672 -2716.000000 316.965890
290.202892 -2716.000000 316.852437
288.206113 -2716.000000 316.738984
286.209333 -2716.000000 316.625530
284.212554 -2716.000000 316.512077
282.215774 -2716.000000 316.398624
280.218995 -2716.000000 316.285170
278.222215 -2716.000000 316.171717
276.225436 -2716.000000 316.058263
274.228656 -2716.000000 315.944810
272.231877 -2716.000000 315.831357
270.235097 -2716.000000 315.717903
268.238318 -2716.000000 315.604450
266.241538 -2716.000000 315.490996
264.244759 -2716.000000 315.377543
262.247979 -2716.000000 315.264090
260.251200 -2716.000000 315.150636
258.254420 -2716.000000 315.037183
256.257641 -2716.000000 314.923730
254.260861 -2716.000000 314.810276
252.264082 -2716.000000 314.696823
250.267302 -2716.000000 314.583369
248.270523 -2716.000000 314.469916
246.273743 -2716.000000 314.356463
244.276964 -2716.000000 314.243009
242.280184 -2716.000000 314.129556
240.283405 -2716.000000 314.016103
238.286625 -2716.000000 313.902649
236.289846 -2716.000000 313.789196
234.293066 -2716.000000 313.675742
232.296287 -2716.000000 313.562289
230.299507 -2716.000000 313.448836
228.302728 -2716.000000 313.335382
226.305948 -2716.000000 313.221929
224.309169 -2716.000000 313.108476
222.312389 -2716.000000 312.995022
220.315610 -2716.000000 312.881569
218.318831 -2716.000000 312.768115
216.322051 -2716.000000 312.654662
214.325272 -2716.000000 312.541209
212.328492 -2716.000000 312.427755
210.331713 -2716.000000 312.314302
208.334933 -2716.000000 312.200848
206.338154 -2716.000000 312.087395
204.341374 -2716.000000 311.973942
202.344595 -2716.000000 311.860488
200.347815 -2716.000000 311.747035
198.351036 -2716.000000 311.633582
196.354256 -2716.000000 311.520128
194.357477 -2716.000000 311.406675
192.360697 -2716.000000 311.293221
190.363918 -2716.000000 311.179768
188.367138 -2716.000000 311.066315
186.370359 -2716.000000 310.952861
184.373579 -2716.000000 310.839408
182.376800 -2716.000000 310.725955
180.380020 -2716.000000 310.612501
178.383241 -2716.000000 310.499048
176.386461 -2716.000000 310.385594
174.389682 -2716.000000 310.272141
172.392902 -2716.000000 310.158688
170.396123 -2716.000000 310.045234
168.399343 -2716.000000 309.931781
166.402564 -2716.000000 309.818327
164.405784 -2716.000000 309.704874
162.409005 -2716.000000 309.591421
160.412225 -2716.000000 309.477967
158.415446 -2716.000000 309.364514
156.418666 -2716.000000 309.251061
154.421887 -2716.000000 309.137607
152.425107 -2716.000000 309.024154
150.428328 -2716.000000 308.910700
148.431548 -2716.000000 308.797247
146.434769 -2716.000000 308.683794
144.437989 -2716.000000 308.570340
142.441210 -2716.000000 308.456887
140.444430 -2716.000000 308.343434
138.447651 -2716.000000 308.229980
136.450871 -2716.000000 308.116527
134.454092 -2716.000000 308.003073
132.457312 -2716.000000 307.889620
130.460533 -2716.000000 307.776167
128.463753 -2716.000000 307.662713
126.466974 -2716.000000 307.549260
124.470195 -2716.000000 307.435807
122.473415 -2716.000000 307.322353
120.476636 -2716.000000 307.208900
118.479856 -2716.000000 307.095446
116.483077 -2716.000000 306.981993
114.486297 -2716.000000 306.868540
112.489518 -2716.000000 306.755086
110.492738 -2716.000000 306.641633
108.495959 -2716.000000 306.528179
106.499179 -2716.000000 306.414726
104.502400 -2716.000000 306.301273
102.505620 -2716.000000 306.187819
100.508841 -2716.000000 306.074366
98.512061 -2716.000000 305.960913
96.515282 -2716.000000 305.847459
94.518502 -2716.000000 305.734006
92.521723 -2716.000000 305.620552
90.524943 -2716.000000 305.507099
88.528164 -2716.000000 305.393646
86.531384 -2716.000000 305.280192
84.534605 -2716.000000 305.166739
82.537825 -2716.000000 305.053286
80.541046 -2716.000000 304.939832
78.544266 -2716.000000 304.826379
76.547487 -2716.000000 304.712925
74.550707 -2716.000000 304.599472
72.553928 -2716.000000 304.486019
70.557148 -2716.000000 304.372565
68.560369 -2716.000000 304.259112
66.563589 -2716.000000 304.145658
64.000000 -2716.000000 304.000000
62.247568 -2716.000000 303.036163
60.495136 -2716.000000 302.072325
58.742705 -2716.000000 301.108488
56.990273 -2716.000000 300.144650
55.237841 -2716.000000 299.180813
53.485409 -2716.000000 298.216975
51.732977 -2716.000000 297.253138
49.980545 -2716.000000 296.289300
48.228114 -2716.000000 295.325463
46.475682 -2716.000000 294.361625
44.723250 -2716.000000 293.397788
42.970818 -2716.000000 292.433950
41.218386 -2716.000000 291.470113
39.465955 -2716.000000 290.506275
37.713523 -2716.000000 289.542438
35.961091 -2716.000000 288.578600
34.208659 -2716.000000 287.614763
32.456227 -2716.000000 286.650925
30.703795 -2716.000000 285.687088
28.951364 -2716.000000 284.723250
27.198932 -2716.000000 283.759413
25.446500 -2716.000000 282.795575
23.694068 -2716.000000 281.831738
21.941636 -2716.000000 280.867900
20.189205 -2716.000000 279.904063
18.436773 -2716.000000 278.940225
16.684341 -2716.000000 277.976388
14.931909 -2716.000000 277.012550
13.179477 -2716.000000 276.048713
11.427045 -2716.000000 275.084875
9.674614 -2716.000000 274.121038
7.922182 -2716.000000 273.157200
6.169750 -2716.000000 272.193363
4.417318 -2716.000000 271.229525
2.664886 -2716.000000 270.265688
0.912455 -2716.000000 269.301850
-0.839977 -2716.000000 268.338013
-2.592409 -2716.000000 267.374175
-4.344841 -2716.000000 266.410338
-6.097273 -2716.000000 265.446500
-7.849705 -2716.000000 264.482663
-9.602136 -2716.000000 263.518825
-11.354568 -2716.000000 262.554988
-13.107000 -2716.000000 261.591150
-14.859432 -2716.000000 260.627313
-16.611864 -2716.000000 259.663475
-18.364295 -2716.000000 258.699638
-20.116727 -2716.000000 257.735800
-21.869159 -2716.000000 256.771963
-23.621591 -2716.000000 255.808125
-25.374023 -2716.000000 254.844288
-27.126455 -2716.000000 253.880450
-28.878886 -2716.000000 252.916613
-30.631318 -2716.000000 251.952775
-32.383750 -2716.000000 250.988938
-34.136182 -2716.000000 250.025100
-35.888614 -2716.000000 249.061263
-37.641045 -2716.000000 248.097425
-39.393477 -2716.000000 247.133588
-41.145909 -2716.000000 246.169750
-42.898341 -2716.000000 245.205913
-44.650773 -2716.000000 244.242075
-46.403204 -2716.000000 243.278238
-48.155636 -2716.000000 242.314400
-49.908068 -2716.000000 241.350563
-51.660500 -2716.000000 240.386725
-53.412932 -2716.000000 239.422888
-55.165364 -2716.000000 238.459050
-56.917795 -2716.000000 237.495213
-58.670227 -2716.000000 236.531375
-60.422659 -2716.000000 235.567538
-62.175091 -2716.000000 234.603700
-63.927523 -2716.000000 233.639863
-65.679954 -2716.000000 232.676025
-67.432386 -2716.000000 231.712188
-69.184818 -2716.000000 230.748350
-70.937250 -2716.000000 229.784513
-72.689682 -2716.000000 228.820675
-74.442114 -2716.000000 227.856838
-76.194545 -2716.000000 226.893000
-77.946977 -2716.000000 225.929163
-79.699409 -2716.000000 224.965325
-81.451841 -2716.000000 224.001488
-83.204273 -2716.000000 223.037650
-84.956704 -2716.000000 222.073813
-86.709136 -2716.000000 221.109975
-88.461568 -2716.000000 220.146138
-90.214000 -2716.000000 219.182300
-91.966432 -2716.000000 218.218463
-93.718864 -2716.000000 217.254625
-96.000000 -2716.000000 216.000000
-97.993924 -2715.906535 216.124620
-99.987849 -2715.813070 216.249241
-101.981773 -2715.719604 216.373861
-103.975697 -2715.626139 216.498481
-105.969621 -2715.532674 216.623101
-107.963546 -2715.439209 216.747722
-109.957470 -2715.345744 216.872342
-111.951394 -2715.252278 216.996962
-113.945319 -2715.158813 217.121582
-115.939243 -2715.065348 217.246203
-117.933167 -2714.971883 217.370823
-119.927091 -2714.878418 217.495443
-121.921016 -2714.784952 217.620063
-123.914940 -2714.691487 217.744684
-125.908864 -2714.598022 217.869304
-127.902789 -2714.504557 217.993924
-129.896713 -2714.411092 218.118545
-131.890637 -2714.317626 218.243165
-133.884561 -2714.224161 218.367785
-135.878486 -2714.130696 218.492405
-137.872410 -2714.037231 218.617026
-139.866334 -2713.943766 218.741646
-141.860259 -2713.850300 218.866266
-143.854183 -2713.756835 218.990886
-145.848107 -2713.663370 219.115507
-147.842031 -2713.569905 219.240127
-149.835956 -2713.476440 219.364747
-151.829880 -2713.382974 219.489367
-153.823804 -2713.289509 219.613988
-155.817728 -2713.196044 219.738608
-157.811653 -2713.102579 219.863228
-159.805577 -2713.009114 219.987849
-161.799501 -2712.915648 220.112469
-163.793426 -2712.822183 220.237089
-165.787350 -2712.728718 220.361709
-167.781274 -2712.635253 220.486330
-169.775198 -2712.541788 220.610950
-171.769123 -2712.448322 220.735570
-173.763047 -2712.354857 220.860190
-175.756971 -2712.261392 220.984811
-177.750896 -2712.167927 221.109431
-179.744820 -2712.074462 221.234051
-181.738744 -2711.980996 221.358672
-183.732668 -2711.887531 221.483292
-185.726593 -2711.794066 221.607912
-187.720517 -2711.700601 221.732532
-189.714441 -2711.607136 221.857153
-191.708366 -2711.513670 221.981773
-193.702290 -2711.420205 222.106393
-195.696214 -2711.326740 222.231013
-197.690138 -2711.233275 222.355634
-199.684063 -2711.139810 222.480254
-201.677987 -2711.046344 222.604874
-203.671911 -2710.952879 222.729494
-205.665836 -2710.859414 222.854115
-207.659760 -2710.765949 222.978735
-209.653684 -2710.672484 223.103355
-211.647608 -2710.579018 223.227976
-213.641533 -2710.485553 223.352596
-215.635457 -2710.392088 223.477216
-217.629381 -2710.298623 223.601836
-219.623306 -2710.205158 223.726457
-221.617230 -2710.111692 223.851077
-223.611154 -2710.018227 223.975697
-225.605078 -2709.924762 224.100317
-227.599003 -2709.831297 224.224938
-229.592927 -2709.737832 224.349558
-231.586851 -2709.644366 224.474178
-233.580776 -2709.550901 224.598798
-235.574700 -2709.457436 224.723419
-237.568624 -2709.363971 224.848039
-239.562548 -2709.270506 224.972659
-241.556473 -2709.177040 225.097280
-243.550397 -2709.083575 225.221900
-245.544321 -2708.990110 225.346520
-247.538245 -2708.896645 225.471140
-249.532170 -2708.803180 225.595761
-251.526094 -2708.709714 225.720381
-253.520018 -2708.616249 225.845001
-255.513943 -2708.522784 225.969621
-257.507867 -2708.429319 226.094242
-259.501791 -2708.335854 226.218862
-261.495715 -2708.242388 226.343482
-263.489640 -2708.148923 226.468102
-265.483564 -2708.055458 226.592723
-267.477488 -2707.961993 226.717343
-269.471413 -2707.868528 226.841963
-271.465337 -2707.775062 226.966584
-273.459261 -2707.681597 227.091204
-275.453185 -2707.588132 227.215824
-277.447110 -2707.494667 227.340444
-279.441034 -2707.401202 227.465065
-281.434958 -2707.307736 227.589685
-283.428883 -2707.214271 227.714305
-285.422807 -2707.120806 227.838925
-287.416731 -2707.027341 227.963546
-289.410655 -2706.933876 228.088166
-291.404580 -2706.840410 228.212786
-293.398504 -2706.746945 228.337406
-295.392428 -2706.653480 228.462027
-297.386353 -2706.560015 228.586647
-299.380277 -2706.466550 228.711267
-301.374201 -2706.373084 228.835888
-303.368125 -2706.279619 228.960508
-305.362050 -2706.186154 229.085128
-307.355974 -2706.092689 229.209748
-309.349898 -2705.999224 229.334369
-311.343823 -2705.905758 229.458989
-313.337747 -2705.812293 229.583609
-315.331671 -2705.718828 229.708229
-317.325595 -2705.625363 229.832850
-319.319520 -2705.531898 229.957470
-321.313444 -2705.438432 230.082090
-323.307368 -2705.344967 230.206711
-325.301293 -2705.251502 230.331331
-327.295217 -2705.158037 230.455951
-329.289141 -2705.064572 230.580571
-331.283065 -2704.971106 230.705192
-333.276990 -2704.877641 230.829812
-335.270914 -2704.784176 230.954432
-337.264838 -2704.690711 231.079052
-339.258762 -2704.597246 231.203673
-341.252687 -2704.503780 231.328293
-343.246611 -2704.410315 231.452913
-345.240535 -2704.316850 231.577533
-347.234460 -2704.223385 231.702154
-349.228384 -2704.129920 231.826774
-351.222308 -2704.036454 231.951394
-353.216232 -2703.942989 232.076015
-355.210157 -2703.849524 232.200635
-357.204081 -2703.756059 232.325255
-359.198005 -2703.662594 232.449875
-361.191930 -2703.569128 232.574496
-363.185854 -2703.475663 232.699116
-365.179778 -2703.382198 232.823736
-367.173702 -2703.288733 232.948356
-369.167627 -2703.195267 233.072977
-371.161551 -2703.101802 233.197597
-373.155475 -2703.008337 233.322217
-375.149400 -2702.914872 233.446837
-377.143324 -2702.821407 233.571458
-379.137248 -2702.727941 233.696078
-381.131172 -2702.634476 233.820698
-383.125097 -2702.541011 233.945319
-385.119021 -2702.447546 234.069939
-387.112945 -2702.354081 234.194559
-389.106870 -2702.260615 234.319179
-391.100794 -2702.167150 234.443800
-393.094718 -2702.073685 234.568420
-395.088642 -2701.980220 234.693040
-397.082567 -2701.886755 234.817660
-399.076491 -2701.793289 234.942281
-401.070415 -2701.699824 235.066901
-403.064340 -2701.606359 235.191521
-405.058264 -2701.512894 235.316141
-407.052188 -2701.419429 235.440762
-409.046112 -2701.325963 235.565382
-411.040037 -2701.232498 235.690002
-413.033961 -2701.139033 235.814623
-415.027885 -2701.045568 235.939243
-417.021810 -2700.952103 236.063863
-419.015734 -2700.858637 236.188483
-421.009658 -2700.765172 236.313104
-423.003582 -2700.671707 236.437724
-424.997507 -2700.578242 236.562344
-426.991431 -2700.484777 236.686964
-428.985355 -2700.391311 236.811585
-430.979279 -2700.297846 236.936205
-432.973204 -2700.204381 237.060825
-434.967128 -2700.110916 237.185446
-436.961052 -2700.017451 237.310066
-438.954977 -2699.923985 237.434686
-440.948901 -2699.830520 237.559306
-442.942825 -2699.737055 237.683927
-444.936749 -2699.643590 237.808547
-446.930674 -2699.550125 237.933167
-448.924598 -2699.456659 238.057787
-450.918522 -2699.363194 238.182408
-452.912447 -2699.269729 238.307028
-454.906371 -2699.176264 238.431648
-456.900295 -2699.082799 238.556268
-458.894219 -2698.989333 238.680889
-460.888144 -2698.895868 238.805509
-462.882068 -2698.802403 238.930129
-464.875992 -2698.708938 239.054750
-466.869917 -2698.615473 239.179370
-468.863841 -2698.522007 239.303990
-470.857765 -2698.428542 239.428610
-472.851689 -2698.335077 239.553231
-474.845614 -2698.241612 239.677851
-476.839538 -2698.148147 239.802471
-478.833462 -2698.054681 239.927091
-480.827387 -2697.961216 240.051712
-482.821311 -2697.867751 240.176332
-484.815235 -2697.774286 240.300952
-486.809159 -2697.680821 240.425572
-488.803084 -2697.587355 240.550193
-490.797008 -2697.493890 240.674813
-492.790932 -2697.400425 240.799433
-494.784857 -2697.306960 240.924054
-496.778781 -2697.213495 241.048674
-498.772705 -2697.120029 241.173294
-500.766629 -2697.026564 241.297914
-502.760554 -2696.933099 241.422535
-504.754478 -2696.839634 241.547155
-506.748402 -2696.746169 241.671775
-508.742327 -2696.652703 241.796395
-510.736251 -2696.559238 241.921016
-512.730175 -2696.465773 242.045636
-514.724099 -2696.372308 242.170256
-516.718024 -2696.278843 242.294876
-518.711948 -2696.185377 242.419497
-520.705872 -2696.091912 242.544117
-522.699796 -2695.998447 242.668737
-524.693721 -2695.904982 242.793358
-526.687645 -2695.811517 242.917978
-528.681569 -2695.718051 243.042598
-530.675494 -2695.624586 243.167218
-532.669418 -2695.531121 243.291839
-534.663342 -2695.437656 243.416459
-536.657266 -2695.344191 243.541079
-538.651191 -2695.250725 243.665699
-540.645115 -2695.157260 243.790320
-542.639039 -2695.063795 243.914940
-544.632964 -2694.970330 244.039560
-546.626888 -2694.876865 244.164180
-548.620812 -2694.783399 244.288801
-550.614736 -2694.689934 244.413421
-552.608661 -2694.596469 244.538041
-554.602585 -2694.503004 244.662662
-556.596509 -2694.409539 244.787282
-558.590434 -2694.316073 244.911902
-560.584358 -2694.222608 245.036522
-562.578282 -2694.129143 245.161143
-564.572206 -2694.035678 245.285763
-566.566131 -2693.942213 245.410383
-568.560055 -2693.848747 245.535003
-570.553979 -2693.755282 245.659624
-572.547904 -2693.661817 245.784244
-574.541828 -2693.568352 245.908864
-576.535752 -2693.474887 246.033485
-578.529676 -2693.381421 246.158105
-580.523601 -2693.287956 246.282725
-582.517525 -2693.194491 246.407345
-584.511449 -2693.101026 246.531966
-586.505374 -2693.007561 246.656586
-588.499298 -2692.914095 246.781206
-590.493222 -2692.820630 246.905826
-592.487146 -2692.727165 247.030447
-594.481071 -2692.633700 247.155067
-596.474995 -2692.540235 247.279687
-598.468919 -2692.446769 247.404307
-600.462844 -2692.353304 247.528928
-602.456768 -2692.259839 247.653548
-604.450692 -2692.166374 247.778168
-608.000000 -2692.000000 248.000000
-609.994109 -2691.846607 248.000000
-611.988218 -2691.693214 248.000000
-613.982327 -2691.539821 248.000000
-615.976436 -2691.386428 248.000000
-617.970545 -2691.233035 248.000000
-619.964654 -2691.079642 248.000000
-621.958763 -2690.926249 248.000000
-623.952872 -2690.772856 248.000000
-625.946981 -2690.619463 248.000000
-627.941090 -2690.466070 248.000000
-629.935199 -2690.312677 248.000000
-631.929308 -2690.159284 248.000000
-633.923417 -2690.005891 248.000000
-635.917526 -2689.852498 248.000000
-637.911635 -2689.699105 248.000000
-639.905744 -2689.545712 248.000000
-641.899853 -2689.392319 248.000000
-643.893961 -2689.238926 248.000000
-645.888070 -2689.085533 248.000000
-647.882179 -2688.932140 248.000000
-649.876288 -2688.778747 248.000000
-651.870397 -2688.625354 248.000000
-653.864506 -2688.471961 248.000000
-655.858615 -2688.318568 248.000000
-657.852724 -2688.165175 248.000000
-659.846833 -2688.011782 248.000000
-661.840942 -2687.858389 248.000000
-663.835051 -2687.704996 248.000000
-665.829160 -2687.551603 248.000000
-667.823269 -2687.398210 248.000000
-669.817378 -2687.244817 248.000000
-671.811487 -2687.091424 248.000000
-673.805596 -2686.938031 248.000000
-675.799705 -2686.784638 248.000000
-677.793814 -2686.631245 248.000000
-679.787923 -2686.477852 248.000000
-681.782032 -2686.324459 248.000000
-683.776141 -2686.171066 248.000000
-685.770250 -2686.017673 248.000000
-687.764359 -2685.864280 248.000000
-689.758468 -2685.710887 248.000000
-691.752577 -2685.557494 248.000000
-693.746686 -2685.404101 248.000000
-695.740795 -2685.250708 248.000000
-697.734904 -2685.097315 248.000000
-699.729013 -2684.943922 248.000000
-701.723122 -2684.790529 248.000000
-703.717231 -2684.637136 248.000000
-705.711340 -2684.483743 248.000000
-707.705449 -2684.330350 248.000000
-709.699558 -2684.176957 248.000000
-711.693666 -2684.023564 248.000000
-713.687775 -2683.870171 248.000000
-715.681884 -2683.716778 248.000000
-717.675993 -2683.563385 248.000000
-719.670102 -2683.409992 248.000000
-721.664211 -2683.256599 248.000000
-723.658320 -2683.103206 248.000000
-725.652429 -2682.949813 248.000000
-727.646538 -2682.796420 248.000000
-729.640647 -2682.643027 248.000000
-731.634756 -2682.489634 248.000000
-733.628865 -2682.336241 248.000000
-735.622974 -2682.182848 248.000000
-737.617083 -2682.029455 248.000000
-739.611192 -2681.876062 248.000000
-741.605301 -2681.722669 248.000000
-743.599410 -2681.569276 248.000000
-745.593519 -2681.415883 248.000000
-747.587628 -2681.262490 248.000000
-749.581737 -2681.109097 248.000000
-751.575846 -2680.955704 248.000000
-753.569955 -2680.802311 248.000000
-755.564064 -2680.648918 248.000000
-757.558173 -2680.495525 248.000000
-759.552282 -2680.342132 248.000000
-761.546391 -2680.188739 248.000000
-763.540500 -2680.035346 248.000000
-765.534609 -2679.881953 248.000000
-767.528718 -2679.728560 248.000000
-769.522827 -2679.575167 248.000000
-771.516936 -2679.421774 248.000000
-773.511045 -2679.268381 248.000000
-775.505154 -2679.114988 248.000000
-777.499263 -2678.961595 248.000000
-779.493372 -2678.808202 248.000000
-781.487480 -2678.654809 248.000000
-783.481589 -2678.501416 248.000000
-785.475698 -2678.348023 248.000000
-787.469807 -2678.194630 248.000000
-789.463916 -2678.041237 248.000000
-791.458025 -2677.887844 248.000000
-793.452134 -2677.734451 248.000000
-795.446243 -2677.581058 248.000000
-797.440352 -2677.427665 248.000000
-799.434461 -2677.274272 248.000000
-801.428570 -2677.120879 248.000000
-803.422679 -2676.967486 248.000000
-805.416788 -2676.814093 248.000000
-807.410897 -2676.660700 248.000000
-809.405006 -2676.507307 248.000000
-811.399115 -2676.353914 248.000000
-813.393224 -2676.200521 248.000000
-816.000000 -2676.000000 248.000000
-818.000000 -2676.000000 248.000000
-820.000000 -2676.000000 248.000000
-822.000000 -2676.000000 248.000000
-824.000000 -2676.000000 248.000000
-826.000000 -2676.000000 248.000000
-828.000000 -2676.000000 248.000000
-830.000000 -2676.000000 248.000000
-832.000000 -2676.000000 248.000000
-834.000000 -2676.000000 248.000000
-836.000000 -2676.000000 248.000000
-838.000000 -2676.000000 248.000000
-840.000000 -2676.000000 248.000000
-842.000000 -2676.000000 248.000000
-844.000000 -2676.000000 248.000000
-846.000000 -2676.000000 248.000000
-848.000000 -2676.000000 248.000000
-850.000000 -2676.000000 248.000000
-852.000000 -2676.000000 248.000000
-854.000000 -2676.000000 248.000000
-856.000000 -2676.000000 248.000000
-858.000000 -2676.000000 248.000000
-860.000000 -2676.000000 248.000000
-862.000000 -2676.000000 248.000000
-864.000000 -2676.000000 248.000000
-866.000000 -2676.000000 248.000000
-868.000000 -2676.000000 248.000000
-870.000000 -2676.000000 248.000000
-872.000000 -2676.000000 248.000000
-874.000000 -2676.000000 248.000000
-876.000000 -2676.000000 248.000000
-878.000000 -2676.000000 248.000000
-880.000000 -2676.000000 248.000000
-882.000000 -2676.000000 248.000000
-884.000000 -2676.000000 248.000000
-886.000000 -2676.000000 248.000000
-888.000000 -2676.000000 248.000000
-890.000000 -2676.000000 248.000000
-892.000000 -2676.000000 248.000000
-894.000000 -2676.000000 248.000000
-896.000000 -2676.000000 248.000000
-898.000000 -2676.000000 248.000000
-900.000000 -2676.000000 248.000000
-902.000000 -2676.000000 248.000000
-904.000000 -2676.000000 248.000000
-906.000000 -2676.000000 248.000000
-908.000000 -2676.000000 248.000000
-910.000000 -2676.000000 248.000000
-912.000000 -2676.000000 248.000000
-914.000000 -2676.000000 248.000000
-916.000000 -2676.000000 248.000000
-918.000000 -2676.000000 248.000000
-920.000000 -2676.000000 248.000000
-922.000000 -2676.000000 248.000000
-924.000000 -2676.000000 248.000000
-926.000000 -2676.000000 248.000000
-928.000000 -2676.000000 248.000000
-930.000000 -2676.000000 248.000000
-932.000000 -2676.000000 248.000000
-934.000000 -2676.000000 248.000000
-936.000000 -2676.000000 248.000000
-938.000000 -2676.000000 248.000000
-940.000000 -2676.000000 248.000000
-942.000000 -2676.000000 248.000000
-944.000000 -2676.000000 248.000000
-946.000000 -2676.000000 248.000000
-948.000000 -2676.000000 248.000000
-950.000000 -2676.000000 248.000000
-952.000000 -2676.000000 248.000000
-954.000000 -2676.000000 248.000000
-956.000000 -2676.000000 248.000000
-958.000000 -2676.000000 248.000000
-960.000000 -2676.000000 248.000000
-962.000000 -2676.000000 248.000000
-964.000000 -2676.000000 248.000000
-966.000000 -2676.000000 248.000000
-968.000000 -2676.000000 248.000000
-970.000000 -2676.000000 248.000000
-972.000000 -2676.000000 248.000000
-974.000000 -2676.000000 248.000000
-976.000000 -2676.000000 248.000000
-978.000000 -2676.000000 248.000000
-980.000000 -2676.000000 248.000000
-982.000000 -2676.000000 248.000000
-984.000000 -2676.000000 248.000000
-986.000000 -2676.000000 248.000000
-988.000000 -2676.000000 248.000000
-990.000000 -2676.000000 248.000000
-992.000000 -2676.000000 248.000000
-994.000000 -2676.000000 248.000000
-996.000000 -2676.000000 248.000000
-998.000000 -2676.000000 248.000000
-1000.000000 -2676.000000 248.000000
-1002.000000 -2676.000000 248.000000
-1004.000000 -2676.000000 248.000000
-1006.000000 -2676.000000 248.000000
-1008.000000 -2676.000000 248.000000
-1010.000000 -2676.000000 248.000000
-1012.000000 -2676.000000 248.000000
-1014.000000 -2676.000000 248.000000
-1016.000000 -2676.000000 248.000000
-1018.000000 -2676.000000 248.000000
-1020.000000 -2676.000000 248.000000
-1022.000000 -2676.000000 248.000000
-1024.000000 -2676.000000 248.000000
-1026.000000 -2676.000000 248.000000
-1028.000000 -2676.000000 248.000000
-1030.000000 -2676.000000 248.000000
-1032.000000 -2676.000000 248.000000
-1034.000000 -2676.000000 248.000000
-1036.000000 -2676.000000 248.000000
-1038.000000 -2676.000000 248.000000
-1040.000000 -2676.000000 248.000000
-1042.000000 -2676.000000 248.000000
-1044.000000 -2676.000000 248.000000
-1046.000000 -2676.000000 248.000000
-1048.000000 -2676.000000 248.000000
-1050.000000 -2676.000000 248.000000
-1052.000000 -2676.000000 248.000000
-1054.000000 -2676.000000 248.000000
-1056.000000 -2676.000000 248.000000
-1058.000000 -2676.000000 248.000000
-1060.000000 -2676.000000 248.000000
-1062.000000 -2676.000000 248.000000
-1064.000000 -2676.000000 248.000000
-1066.000000 -2676.000000 248.000000
-1068.000000 -2676.000000 248.000000
-1070.000000 -2676.000000 248.000000
-1072.000000 -2676.000000 248.000000
-1074.000000 -2676.000000 248.000000
-1076.000000 -2676.000000 248.000000
-1078.000000 -2676.000000 248.000000
-1080.000000 -2676.000000 248.000000
-1082.000000 -2676.000000 248.000000
-1084.000000 -2676.000000 248.000000
-1086.000000 -2676.000000 248.000000
-1088.000000 -2676.000000 248.000000
-1090.000000 -2676.000000 248.000000
-1092.000000 -2676.000000 248.000000
-1094.000000 -2676.000000 248.000000
-1096.000000 -2676.000000 248.000000
-1098.000000 -2676.000000 248.000000
-1100.000000 -2676.000000 248.000000
-1102.000000 -2676.000000 248.000000
-1104.000000 -2676.000000 248.000000
-1106.000000 -2676.000000 248.000000
-1108.000000 -2676.000000 248.000000
-1110.000000 -2676.000000 248.000000
-1112.000000 -2676.000000 248.000000
-1114.000000 -2676.000000 248.000000
-1116.000000 -2676.000000 248.000000
-1118.000000 -2676.000000 248.000000
-1120.000000 -2676.000000 248.000000
-1122.000000 -2676.000000 248.000000
-1124.000000 -2676.000000 248.000000
-1126.000000 -2676.000000 248.000000
-1128.000000 -2676.000000 248.000000
-1130.000000 -2676.000000 248.000000
-1132.000000 -2676.000000 248.000000
-1134.000000 -2676.000000 248.000000
-1136.000000 -2676.000000 248.000000
-1138.000000 -2676.000000 248.000000
-1140.000000 -2676.000000 248.000000
-1142.000000 -2676.000000 248.000000
-1144.000000 -2676.000000 248.000000
-1146.000000 -2676.000000 248.000000
-1148.000000 -2676.000000 248.000000
-1150.000000 -2676.000000 248.000000
-1152.000000 -2676.000000 248.000000
-1154.000000 -2676.000000 248.000000
-1156.000000 -2676.000000 248.000000
-1158.000000 -2676.000000 248.000000
-1160.000000 -2676.000000 248.000000
-1162.000000 -2676.000000 248.000000
-1164.000000 -2676.000000 248.000000
-1166.000000 -2676.000000 248.000000
-1168.000000 -2676.000000 248.000000
-1170.000000 -2676.000000 248.000000
-1172.000000 -2676.000000 248.000000
-1174.000000 -2676.000000 248.000000
-1176.000000 -2676.000000 248.000000
-1178.000000 -2676.000000 248.000000
-1180.000000 -2676.000000 248.000000
-1182.000000 -2676.000000 248.000000
-1184.000000 -2676.000000 248.000000
-1186.000000 -2676.000000 248.000000
-1188.000000 -2676.000000 248.000000
-1190.000000 -2676.000000 248.000000
-1192.000000 -2676.000000 248.000000
-1194.000000 -2676.000000 248.000000
-1196.000000 -2676.000000 248.000000
-1198.000000 -2676.000000 248.000000
-1200.000000 -2676.000000 248.000000
-1202.000000 -2676.000000 248.000000
-1204.000000 -2676.000000 248.000000
-1206.000000 -2676.000000 248.000000
-1208.000000 -2676.000000 248.000000
-1210.000000 -2676.000000 248.000000
-1212.000000 -2676.000000 248.000000
-1214.000000 -2676.000000 248.000000
-1216.000000 -2676.000000 248.000000
-1218.000000 -2676.000000 248.000000
-1220.000000 -2676.000000 248.000000
-1222.000000 -2676.000000 248.000000
-1224.000000 -2676.000000 248.000000
-1226.000000 -2676.000000 248.000000
-1228.000000 -2676.000000 248.000000
-1230.000000 -2676.000000 248.000000
-1232.000000 -2676.000000 248.000000
-1234.000000 -2676.000000 248.000000
-1236.000000 -2676.000000 248.000000
-1238.000000 -2676.000000 248.000000
-1240.000000 -2676.000000 248.000000
-1242.000000 -2676.000000 248.000000
-1244.000000 -2676.000000 248.000000
-1246.000000 -2676.000000 248.000000
-1248.000000 -2676.000000 248.000000
-1250.000000 -2676.000000 248.000000
-1252.000000 -2676.000000 248.000000
-1254.000000 -2676.000000 248.000000
-1256.000000 -2676.000000 248.000000
-1258.000000 -2676.000000 248.000000
-1260.000000 -2676.000000 248.000000
-1262.000000 -2676.000000 248.000000
-1264.000000 -2676.000000 248.000000
-1266.000000 -2676.000000 248.000000
-1268.000000 -2676.000000 248.000000
-1270.000000 -2676.000000 248.000000
-1272.000000 -2676.000000 248.000000
-1274.000000 -2676.000000 248.000000
-1276.000000 -2676.000000 248.000000
-1280.000000 -2676.000000 248.000000
-1281.424524 -2676.136973 246.602871
-1282.849048 -2676.273947 245.205742
-1284.273572 -2676.410920 243.808612
-1285.698096 -2676.547894 242.411483
-1287.122619 -2676.684867 241.014354
-1288.547143 -2676.821841 239.617225
-1289.971667 -2676.958814 238.220096
-1291.396191 -2677.095788 236.822966
-1292.820715 -2677.232761 235.425837
-1294.245239 -2677.369735 234.028708
-1295.669763 -2677.506708 232.631579
-1297.094287 -2677.643681 231.234450
-1298.518810 -2677.780655 229.837320
-1299.943334 -2677.917628 228.440191
-1301.367858 -2678.054602 227.043062
-1302.792382 -2678.191575 225.645933
-1304.216906 -2678.328549 224.248804
-1305.641430 -2678.465522 222.851675
-1307.065954 -2678.602496 221.454545
-1308.490478 -2678.739469 220.057416
-1309.915002 -2678.876442 218.660287
-1311.339525 -2679.013416 217.263158
-1312.764049 -2679.150389 215.866029
-1314.188573 -2679.287363 214.468899
-1315.613097 -2679.424336 213.071770
-1317.037621 -2679.561310 211.674641
-1318.462145 -2679.698283 210.277512
-1319.886669 -2679.835257 208.880383
-1321.311193 -2679.972230 207.483253
-1322.735716 -2680.109204 206.086124
-1324.160240 -2680.246177 204.688995
-1325.584764 -2680.383150 203.291866
-1327.009288 -2680.520124 201.894737
-1328.433812 -2680.657097 200.497607
-1329.858336 -2680.794071 199.100478
-1331.282860 -2680.931044 197.703349
-1332.707384 -2681.068018 196.306220
-1334.131908 -2681.204991 194.909091
-1335.556431 -2681.341965 193.511961
-1336.980955 -2681.478938 192.114832
-1338.405479 -2681.615911 190.717703
-1339.830003 -2681.752885 189.320574
-1341.254527 -2681.889858 187.923445
-1342.679051 -2682.026832 186.526316
-1344.103575 -2682.163805 185.129186
-1345.528099 -2682.300779 183.732057
-1346.952622 -2682.437752 182.334928
-1348.377146 -2682.574726 180.937799
-1349.801670 -2682.711699 179.540670
-1351.226194 -2682.848673 178.143540
-1352.650718 -2682.985646 176.746411
-1354.075242 -2683.122619 175.349282
-1355.499766 -2683.259593 173.952153
-1356.924290 -2683.396566 172.555024
-1358.348814 -2683.533540 171.157894
-1359.773337 -2683.670513 169.760765
-1361.197861 -2683.807487 168.363636
-1362.622385 -2683.944460 166.966507
-1364.046909 -2684.081434 165.569378
-1365.471433 -2684.218407 164.172248
-1366.895957 -2684.355380 162.775119
-1368.320481 -2684.492354 161.377990
-1369.745005 -2684.629327 159.980861
-1371.169528 -2684.766301 158.583732
-1372.594052 -2684.903274 157.186602
-1374.018576 -2685.040248 155.789473
-1375.443100 -2685.177221 154.392344
-1376.867624 -2685.314195 152.995215
-1378.292148 -2685.451168 151.598086
-1379.716672 -2685.588142 150.200957
-1381.141196 -2685.725115 148.803827
-1382.565720 -2685.862088 147.406698
-1383.990243 -2685.999062 146.009569
-1385.414767 -2686.136035 144.612440
-1386.839291 -2686.273009 143.215311
-1388.263815 -2686.409982 141.818181
-1389.688339 -2686.546956 140.421052
-1391.112863 -2686.683929 139.023923
-1392.537387 -2686.820903 137.626794
-1393.961911 -2686.957876 136.229665
-1395.386435 -2687.094849 134.832535
-1396.810958 -2687.231823 133.435406
-1398.235482 -2687.368796 132.038277
-1399.660006 -2687.505770 130.641148
-1401.084530 -2687.642743 129.244019
-1402.509054 -2687.779717 127.846889
-1403.933578 -2687.916690 126.449760
-1405.358102 -2688.053664 125.052631
-1406.782626 -2688.190637 123.655502
-1408.207149 -2688.327611 122.258373
-1409.631673 -2688.464584 120.861243
-1411.056197 -2688.601557 119.464114
-1412.480721 -2688.738531 118.066985
-1413.905245 -2688.875504 116.669856
-1415.329769 -2689.012478 115.272727
-1416.754293 -2689.149451 113.875597
-1418.178817 -2689.286425 112.478468
-1419.603341 -2689.423398 111.081339
-1421.027864 -2689.560372 109.684210
-1422.452388 -2689.697345 108.287081
-1423.876912 -2689.834318 106.889952
-1425.301436 -2689.971292 105.492822
-1426.725960 -2690.108265 104.095693
-1428.150484 -2690.245239 102.698564
-1429.575008 -2690.382212 101.301435
-1430.999532 -2690.519186 99.904306
-1432.424055 -2690.656159 98.507176
-1433.848579 -2690.793133 97.110047
-1435.273103 -2690.930106 95.712918
-1436.697627 -2691.067080 94.315789
-1438.122151 -2691.204053 92.918660
-1439.546675 -2691.341026 91.521530
-1440.971199 -2691.478000 90.124401
-1442.395723 -2691.614973 88.727272
-1443.820247 -2691.751947 87.330143
-1445.244770 -2691.888920 85.933014
-1446.669294 -2692.025894 84.535884
-1448.093818 -2692.162867 83.138755
-1449.518342 -2692.299841 81.741626
-1450.942866 -2692.436814 80.344497
-1452.367390 -2692.573787 78.947368
-1453.791914 -2692.710761 77.550238
-1455.216438 -2692.847734 76.153109
-1456.640961 -2692.984708 74.755980
-1458.065485 -2693.121681 73.358851
-1459.490009 -2693.258655 71.961722
-1460.914533 -2693.395628 70.564593
-1462.339057 -2693.532602 69.167463
-1463.763581 -2693.669575 67.770334
-1465.188105 -2693.806549 66.373205
-1466.612629 -2693.943522 64.976076
-1468.037153 -2694.080495 63.578947
-1469.461676 -2694.217469 62.181817
-1470.886200 -2694.354442 60.784688
-1472.310724 -2694.491416 59.387559
-1473.735248 -2694.628389 57.990430
-1475.159772 -2694.765363 56.593301
-1476.584296 -2694.902336 55.196171
-1478.008820 -2695.039310 53.799042
-1479.433344 -2695.176283 52.401913
-1480.857867 -2695.313256 51.004784
-1482.282391 -2695.450230 49.607655
-1483.706915 -2695.587203 48.210525
-1485.131439 -2695.724177 46.813396
-1486.555963 -2695.861150 45.416267
-1487.980487 -2695.998124 44.019138
-1489.405011 -2696.135097 42.622009
-1490.829535 -2696.272071 41.224879
-1492.254059 -2696.409044 39.827750
-1493.678582 -2696.546018 38.430621
-1495.103106 -2696.682991 37.033492
-1496.527630 -2696.819964 35.636363
-1497.952154 -2696.956938 34.239234
-1499.376678 -2697.093911 32.842104
-1500.801202 -2697.230885 31.444975
-1502.225726 -2697.367858 30.047846
-1503.650250 -2697.504832 28.650717
-1505.074773 -2697.641805 27.253588
-1506.499297 -2697.778779 25.856458
-1507.923821 -2697.915752 24.459329
-1509.348345 -2698.052725 23.062200
-1510.772869 -2698.189699 21.665071
-1512.197393 -2698.326672 20.267942
-1513.621917 -2698.463646 18.870812
-1515.046441 -2698.600619 17.473683
-1516.470965 -2698.737593 16.076554
-1517.895488 -2698.874566 14.679425
-1519.320012 -2699.011540 13.282296
-1520.744536 -2699.148513 11.885166
-1522.169060 -2699.285487 10.488037
-1523.593584 -2699.422460 9.090908
-1525.018108 -2699.559433 7.693779
-1526.442632 -2699.696407 6.296650
-1527.867156 -2699.833380 4.899520
-1529.291679 -2699.970354 3.502391
-1530.716203 -2700.107327 2.105262
-1532.140727 -2700.244301 0.708133
-1533.565251 -2700.381274 -0.688996
-1534.989775 -2700.518248 -2.086126
-1536.414299 -2700.655221 -3.483255
-1537.838823 -2700.792194 -4.880384
-1539.263347 -2700.929168 -6.277513
-1540.687871 -2701.066141 -7.674642
-1542.112394 -2701.203115 -9.071771
-1543.536918 -2701.340088 -10.468901
-1544.961442 -2701.477062 -11.866030
-1546.385966 -2701.614035 -13.263159
-1547.810490 -2701.751009 -14.660288
-1549.235014 -2701.887982 -16.057417
-1550.659538 -2702.024956 -17.454547
-1552.084062 -2702.161929 -18.851676
-1553.508585 -2702.298902 -20.248805
-1554.933109 -2702.435876 -21.645934
-1556.357633 -2702.572849 -23.043063
-1557.782157 -2702.709823 -24.440193
-1559.206681 -2702.846796 -25.837322
-1560.631205 -2702.983770 -27.234451
-1562.055729 -2703.120743 -28.631580
-1563.480253 -2703.257717 -30.028709
-1564.904777 -2703.394690 -31.425839
-1566.329300 -2703.531664 -32.822968
-1567.753824 -2703.668637 -34.220097
-1569.178348 -2703.805610 -35.617226
-1570.602872 -2703.942584 -37.014355
-1572.027396 -2704.079557 -38.411485
-1573.451920 -2704.216531 -39.808614
-1574.876444 -2704.353504 -41.205743
-1576.300968 -2704.490478 -42.602872
-1577.725492 -2704.627451 -44.000001
-1579.150015 -2704.764425 -45.397130
-1580.574539 -2704.901398 -46.794260
-1581.999063 -2705.038371 -48.191389
-1583.423587 -2705.175345 -49.588518
-1584.848111 -2705.312318 -50.985647
-1586.272635 -2705.449292 -52.382776
-1587.697159 -2705.586265 -53.779906
-1589.121683 -2705.723239 -55.177035
-1590.546206 -2705.860212 -56.574164
-1591.970730 -2705.997186 -57.971293
-1593.395254 -2706.134159 -59.368422
-1594.819778 -2706.271133 -60.765552
-1596.244302 -2706.408106 -62.162681
-1597.668826 -2706.545079 -63.559810
-1599.093350 -2706.682053 -64.956939
-1600.517874 -2706.819026 -66.354068
-1601.942398 -2706.956000 -67.751198
-1603.366921 -2707.092973 -69.148327
-1604.791445 -2707.229947 -70.545456
-1606.215969 -2707.366920 -71.942585
-1607.640493 -2707.503894 -73.339714
-1609.065017 -2707.640867 -74.736844
-1610.489541 -2707.777840 -76.133973
-1611.914065 -2707.914814 -77.531102
-1613.338589 -2708.051787 -78.928231
-1614.763112 -2708.188761 -80.325360
-1616.187636 -2708.325734 -81.722489
-1617.612160 -2708.462708 -83.119619
-1619.036684 -2708.599681 -84.516748
-1620.461208 -2708.736655 -85.913877
-1621.885732 -2708.873628 -87.311006
-1623.310256 -2709.010602 -88.708135
-1624.734780 -2709.147575 -90.105265
-1626.159304 -2709.284548 -91.502394
-1627.583827 -2709.421522 -92.899523
-1629.008351 -2709.558495 -94.296652
-1630.432875 -2709.695469 -95.693781
-1631.857399 -2709.832442 -97.090911
-1633.281923 -2709.969416 -98.488040
-1634.706447 -2710.106389 -99.885169
-1636.130971 -2710.243363 -101.282298
-1637.555495 -2710.380336 -102.679427
-1638.980018 -2710.517309 -104.076557
-1640.404542 -2710.654283 -105.473686
-1641.829066 -2710.791256 -106.870815
-1643.253590 -2710.928230 -108.267944
-1644.678114 -2711.065203 -109.665073
-1646.102638 -2711.202177 -111.062203
-1647.527162 -2711.339150 -112.459332
-1648.951686 -2711.476124 -113.856461
-1650.376210 -2711.613097 -115.253590
-1651.800733 -2711.750071 -116.650719
-1653.225257 -2711.887044 -118.047849
-1654.649781 -2712.024017 -119.444978
-1656.074305 -2712.160991 -120.842107
-1657.498829 -2712.297964 -122.239236
-1658.923353 -2712.434938 -123.636365
-1660.347877 -2712.571911 -125.033494
-1661.772401 -2712.708885 -126.430624
-1663.196924 -2712.845858 -127.827753
-1664.621448 -2712.982832 -129.224882
-1666.045972 -2713.119805 -130.622011
-1667.470496 -2713.256778 -132.019140
-1668.895020 -2713.393752 -133.416270
-1670.319544 -2713.530725 -134.813399
-1671.744068 -2713.667699 -136.210528
-1673.168592 -2713.804672 -137.607657
-1674.593116 -2713.941646 -139.004786
-1676.017639 -2714.078619 -140.401916
-1677.442163 -2714.215593 -141.799045
-1678.866687 -2714.352566 -143.196174
-1680.291211 -2714.489540 -144.593303
-1681.715735 -2714.626513 -145.990432
-1683.140259 -2714.763486 -147.387562
-1684.564783 -2714.900460 -148.784691
-1685.989307 -2715.037433 -150.181820
-1687.413830 -2715.174407 -151.578949
-1688.838354 -2715.311380 -152.976078
-1690.262878 -2715.448354 -154.373208
